Macaca fascicularis females -- age 6, 6 landmarks, 3 dimensions, 30 individuals
xyz
6 3 30
-3.184 -0.028 1.252
-5.247 0.082 -0.119
-4.469 -1.026 -0.245
-2.082 -1.183 0.988
-1.209 -0.948 -1.629
-1.032 0.067 -0.821
-3.281 0.024 1.356
-5.372 -0.025 -0.221
-4.622 -0.962 -0.388
-2.572 -1.413 1.071
-1.296 -0.951 -1.513
-1.331 -0.006 -0.649
-3.343 0.299 1.260
-5.194 0.243 -0.110
-4.625 -0.691 -0.311
-2.239 -1.045 0.876
-0.992 -0.576 -1.508
-1.163 0.289 -0.682
-3.393 0.013 1.218
-5.130 -0.022 -0.025
-4.610 -1.046 -0.114
-2.488 -1.266 0.950
-1.401 -1.047 -1.458
-1.159 -0.095 -0.785
-3.447 -0.050 1.365
-5.451 -0.116 -0.262
-4.820 -1.090 -0.413
-2.487 -0.982 1.098
-1.521 -1.069 -1.212
-1.246 -0.081 -0.745
-3.465 -0.502 1.411
-5.180 -0.404 -0.383
-4.327 -1.351 -0.452
-2.121 -1.666 0.932
-1.321 -1.190 -1.469
-0.924 -0.356 -0.775
-3.469 -0.031 1.229
-4.899 -0.021 -0.274
-4.397 -0.840 -0.303
-2.538 -1.209 0.958
-0.922 -1.058 -1.403
-1.152 -0.047 -0.685
-3.566 -0.131 1.720
-5.581 0.034 0.078
-4.774 -1.118 -0.037
-2.233 -1.712 1.130
-1.534 -0.937 -1.359
-1.420 -0.027 -0.687
-3.587 -0.125 0.890
-5.202 0.003 -0.256
-4.743 -0.992 -0.442
-2.510 -0.999 0.939
-1.663 -0.787 -1.873
-1.306 0.005 -0.693
-3.598 0.044 1.373
-5.634 0.162 -0.441
-4.797 -0.917 -0.621
-2.175 -1.170 0.918
-1.218 -0.771 -1.828
-1.110 0.119 -0.830
-3.649 0.077 1.521
-5.263 0.099 -0.199
-4.692 -0.927 -0.305
-2.505 -1.181 0.971
-1.256 -1.152 -1.803
-1.270 -0.136 -0.789
-3.651 -0.129 1.263
-5.332 -0.003 -0.291
-4.776 -1.039 -0.201
-2.448 -1.245 0.947
-1.367 -0.957 -1.433
-1.290 -0.018 -0.695
-3.656 0.200 1.450
-5.352 0.094 -0.088
-4.647 -0.955 -0.227
-2.145 -1.228 1.081
-1.179 -0.954 -1.521
-1.135 0.062 -0.757
-3.686 -0.017 1.463
-5.528 0.120 -0.231
-4.925 -0.919 -0.338
-2.538 -1.154 1.007
-1.288 -0.925 -1.678
-1.063 -0.057 -0.698
-3.700 -0.198 1.232
-5.630 -0.023 -0.243
-4.909 -1.017 -0.365
-2.434 -1.557 1.002
-1.371 -0.950 -1.478
-1.357 0.007 -0.703
-3.700 0.020 1.437
-5.446 0.014 -0.119
-4.876 -1.001 -0.140
-2.528 -1.068 1.300
-1.660 -1.033 -1.485
-1.334 0.007 -0.725
-3.709 -0.081 0.813
-5.261 -0.065 -0.258
-4.786 -0.904 -0.763
-2.756 -1.046 0.795
-1.224 -1.037 -1.556
-1.355 0.005 -0.834
-3.742 0.046 0.886
-5.332 -0.088 -0.634
-4.702 -1.119 -0.529
-2.615 -1.094 0.936
-1.206 -1.055 -1.489
-1.216 -0.052 -0.744
-3.765 0.140 1.159
-5.297 0.027 -0.681
-4.868 -0.920 -0.740
-2.572 -1.052 1.035
-1.328 -0.902 -1.368
-1.318 -0.043 -0.707
-3.772 -0.004 1.196
-5.378 0.083 -0.507
-4.707 -0.942 -0.635
-2.517 -1.346 1.016
-1.356 -0.846 -1.416
-1.398 0.017 -0.695
-3.794 0.016 1.306
-5.748 0.080 -0.204
-4.999 -1.036 -0.309
-2.576 -1.161 1.116
-1.629 -0.948 -1.615
-1.453 -0.037 -0.738
-3.805 0.013 1.014
-5.608 0.010 -0.568
-4.952 -1.058 -0.652
-2.586 -1.057 1.088
-1.409 -0.870 -1.510
-1.480 -0.066 -0.656
-3.806 -0.059 1.327
-5.721 -0.007 -0.053
-5.039 -1.114 -0.275
-2.587 -1.451 1.010
-1.419 -1.055 -1.636
-1.327 -0.055 -0.686
-3.842 -0.035 1.137
-5.542 -0.096 -0.284
-4.810 -1.085 -0.346
-2.572 -1.042 1.074
-1.496 -0.913 -1.673
-1.350 0.079 -0.833
-3.852 -0.102 1.272
-5.709 -0.007 -0.181
-4.905 -0.983 -0.376
-2.526 -1.468 1.037
-1.494 -0.913 -1.510
-1.397 -0.027 -0.743
-3.854 0.007 1.125
-5.635 -0.012 -0.290
-4.905 -1.030 -0.502
-2.564 -0.889 1.100
-1.574 -1.022 -1.493
-1.390 0.109 -0.737
-3.867 -0.142 1.310
-5.683 -0.116 -0.335
-4.889 -1.261 -0.469
-2.383 -1.045 1.268
-1.370 -1.057 -1.526
-1.317 -0.084 -0.638
-3.869 -0.037 1.163
-5.782 0.030 -0.632
-5.198 -0.979 -0.676
-2.648 -1.332 1.034
-1.421 -0.856 -1.690
-1.441 0.007 -0.823
-3.921 -0.228 1.289
-5.667 -0.060 -0.278
-4.965 -1.070 -0.496
-2.435 -1.221 0.948
-1.319 -0.855 -1.520
-1.296 0.036 -0.727
-3.956 -0.020 1.526
-5.957 -0.021 -0.206
-5.294 -1.103 -0.307
-2.679 -1.362 1.182
-1.531 -0.973 -1.640
-1.484 -0.037 -0.660
