Calvarium of normal individuals; 8 landmarks, 3 dimensions, 10 individuals
xyz
8 3 10
-27.83203 -30.46875 9.00000
28.41797 -27.24609 13.50000
0.58594 21.67969 -43.50000
2.34375 -47.16797 -22.50000
-20.51265 55.57866 -3.59125
23.35875 53.58530 -2.80901
-43.97847 -7.59428 -24.63383
45.62730 -7.44632 -26.06009
-45.03127 -27.90480 30.66347
39.32816 -27.51632 36.13385
-0.39063 0.00000 -61.50000
-0.09822 -78.53258 4.80818
-30.07813 57.42188 -25.50000
25.78125 55.46875 -25.50000
-54.84510 -37.12311 -21.33264
51.17188 -39.06250 -21.00000
-44.65559 -24.72419 37.98032
43.23015 -27.13031 36.21729
1.43174 -5.65848 -65.12790
-3.81297 -76.34116 1.93725
-25.51189 59.85461 -32.75788
29.72792 58.11259 -34.16986
-59.67340 -31.73430 -14.85809
57.20750 -34.60946 -15.91926
-50.69548 -31.06666 20.79993
39.79976 -33.08478 21.85085
-3.43315 17.64555 -71.21125
-4.82886 -72.28027 -18.13356
-33.11027 70.17725 -27.79103
26.50546 70.57340 -27.88918
-63.92066 -25.14381 -35.70543
57.54554 -19.50100 -34.47595
-42.50221 -32.90253 22.80777
44.23363 -28.56457 23.20205
5.85938 9.76563 -71.25000
3.90625 -71.09375 -27.75000
-19.20900 65.28500 -28.10800
27.04600 66.65600 -27.18700
-53.56000 -26.06000 -29.24000
59.72300 -23.26100 -27.24300
-30.44671 -17.00755 24.71358
21.84206 -22.63533 25.71226
-2.34375 12.89063 -38.25000
-6.92320 -47.54070 -6.54502
-17.90600 46.01800 -8.05700
18.17700 43.62900 -7.43900
-43.97000 -13.11300 -14.85900
37.74200 -17.64000 -13.90800
-30.17707 -22.14841 11.75074
25.92473 -25.30394 13.54449
-0.39063 18.35938 -42.75000
-3.51563 -46.87500 -24.75000
-18.50100 50.28000 -5.69500
23.20400 47.26100 -5.49100
-43.25300 -9.95600 -23.53300
40.91900 -14.60800 -20.77900
-54.51948 -22.81183 33.01314
36.89614 -25.03201 33.39446
1.23047 2.87109 -70.50000
-7.97245 -70.93913 -9.45570
-31.06118 65.28030 -34.81750
33.02962 62.16001 -34.81095
-65.11304 -21.37485 -28.16167
55.74586 -29.54569 -24.92598
-48.58647 -29.28199 39.36422
43.13444 -29.98073 35.31286
-4.10156 -8.20313 -64.50000
-3.65596 -78.11647 -5.32384
-29.61679 60.97185 -32.48518
25.61170 59.27256 -34.44409
-66.48929 -34.82342 -17.68490
60.15119 -37.01642 -16.91098
-45.32983 -30.59688 37.59270
44.26292 -25.42461 35.20799
2.87109 5.33203 -67.50000
-3.31720 -78.77833 -0.84588
-23.15629 67.97300 -29.33001
30.29792 68.44459 -28.31354
-62.65603 -28.68579 -23.69201
61.39887 -32.08920 -23.58468
