left hemi-mandible of trisomic mice (11 landmarks, 3 dimensions, 7 individuals)
xyz
11 3 7
1.24720 1.73840 5.60280
5.16290 -2.88670 5.81000
3.71450 1.57000 6.30960
5.45490 1.07690 6.72400
0.57850 -2.52030 3.37280
-0.71250 -2.92180 1.96420
-3.78580 -1.99830 0.39620
-4.57170 0.21920 0.44210
-2.18190 -1.28410 2.20330
-2.00960 -0.04680 2.53010
-0.60790 0.04680 3.59600
1.54350 1.92470 5.15970
5.61660 -2.49320 5.34790
4.18840 1.60200 5.65570
5.78040 0.78250 5.93680
0.31050 -2.33470 3.29710
-0.72120 -2.94080 1.79080
-3.60120 -1.95790 0.53970
-4.28310 0.24620 0.36720
-2.05810 -1.27700 2.03400
-1.79390 -0.08570 2.25230
-0.34340 0.08570 3.44860
1.01840 2.85170 4.57910
5.37310 -1.60250 4.76010
3.39190 2.19180 5.55370
5.27790 1.67430 5.55580
0.47900 -2.03610 3.07840
-1.05030 -2.50210 1.57750
-4.51710 -1.87640 0.38380
-5.51770 0.38560 0.35750
-2.82310 -0.94650 1.86350
-2.51590 0.32300 2.19810
-1.18070 0.47760 3.00370
1.17670 3.53870 4.41890
5.86530 -1.36110 4.41060
3.81350 2.97940 4.55640
5.65630 2.77670 4.90270
1.22200 -1.65360 3.36610
-0.89370 -2.54790 1.75410
-4.51300 -2.12630 0.84380
-5.66430 -0.00150 0.52870
-2.69640 -1.08050 2.05020
-2.45850 0.42710 2.10340
-0.90080 0.85660 2.92950
1.30540 2.83220 3.96440
4.70390 -2.39800 4.48280
3.91260 2.01740 4.28020
5.44640 1.30760 4.71190
0.38610 -1.75180 3.40770
-1.73810 -2.28970 1.72430
-5.06240 -1.08350 0.22080
-5.37790 1.07910 -0.25230
-3.31740 -0.41820 1.51700
-2.67030 1.08020 1.61610
-1.39840 0.94770 2.33800
0.59660 2.09380 5.22350
4.96900 -2.07640 4.35330
3.13050 1.45470 5.61160
4.89790 1.09550 5.67550
0.12270 -2.19780 2.61970
-1.24160 -2.66980 1.06490
-4.28930 -1.99220 -0.25540
-5.26230 0.02660 -0.12370
-2.89520 -1.34950 1.34330
-2.64270 -0.07310 1.87120
-1.33740 0.13540 2.85320
1.37370 1.90000 5.10430
5.39440 -2.40990 5.45100
3.93330 1.43870 5.87420
5.59940 1.23210 6.03690
0.78760 -2.38050 3.43290
-0.51540 -2.86730 1.96830
-3.63710 -1.87160 0.50170
-4.07410 0.08180 0.48480
-2.18750 -1.35480 2.00820
-1.87920 -0.03290 2.24470
-0.52040 0.03290 3.40500
